VERSION 0.7
FIELDS x y z rgb
SIZE 4 4 4 4
TYPE F F F U
COUNT 1 1 1 1
WIDTH 140
HEIGHT 1
VIEWPOINT 0 0 0 1 0 0 0
POINTS 140
DATA ascii
9.7819996 2.6800001 0.72600001 4285494368
9.7370005 2.678 0.72899997 4285825136
9.7480001 2.691 0.736 4288061075
9.7629995 2.7049999 0.74299997 4285559908
9.7349997 2.707 0.74800003 4284769882
9.809 2.737 0.75999999 4283979089
10.117 2.8329999 0.79000002 4282927943
10.276 2.8870001 0.80900002 4283453519
10.252 2.8900001 0.81400001 4284111700
10.361 2.931 0.829 4283191371
10.367 2.9419999 0.83600003 4284179030
10.355 2.948 0.84200001 4285693552
10.303 2.9430001 0.84399998 4288258456
10.415 2.984 0.86000001 4286613110
10.439 3 0.86900002 4284310617
10.415 3.0020001 0.87300003 4283981648
10.463 3.0250001 0.884 4284113492
10.533 3.0539999 0.89700001 4283454285
10.513 3.0569999 0.90200001 4283126606
10.485 3.0569999 0.90600002 4283257164
10.465 3.0599999 0.91000003 4283322700
10.406 3.0510001 0.912 4283191372
10.365 3.0469999 0.91500002 4283653971
10.461 3.0829999 0.93000001 4284706908
10.334 3.053 0.92500001 4284575069
10.235 3.0309999 0.92299998 4284311384
10.238 3.039 0.92900002 4283455057
10.258 3.053 0.93699998 4282927685
10.343 3.085 0.95099998 4285167214
10.23 3.0580001 0.94700003 4285561963
10.273 3.0780001 0.95700002 4284177746
10.262 3.0810001 0.96200001 4283123271
10.212 3.073 0.963 4282926407
10.185 3.0710001 0.96700001 4283191374
10.186 3.0780001 0.97299999 4282862668
10.155 3.075 0.97600001 4283389011
10.117 3.069 0.97899997 4283388498
10.085 3.0650001 0.98100001 4283453519
10.083 3.0699999 0.98699999 4283518798
10.087 3.0769999 0.99299997 4283454029
10.086 3.082 0.99900001 4284705889
10.094 3.0899999 1.006 4284639836
10.1 3.0969999 1.012 4284048215
10.143 3.115 1.022 4284771166
10.187 3.1329999 1.033 4285691754
10.368 3.194 1.057 4284706666
10.325 3.1849999 1.058 4285298288
10.334 3.1919999 1.0650001 4284047453
10.341 3.1989999 1.071 4283587668
10.354 3.207 1.0779999 4283917400
10.346 3.2090001 1.0829999 4283982422
10.357 3.2160001 1.089 4283916378
10.304 3.204 1.089 4283323217
10.306 3.2079999 1.095 4283190862
10.307 3.2119999 1.101 4283981660
10.288 3.2090001 1.104 4284246114
10.378 3.2409999 1.119 4284245598
10.303 3.22 1.117 4285033828
10.258 3.2090001 1.117 4286088312
10.253 3.21 1.122 4286614651
10.289 3.224 1.131 4285889136
10.331 3.24 1.141 4284308824
10.397 3.263 1.153 4284441950
10.247 3.2179999 1.142 4284245084
10.262 3.2249999 1.148 4283981398
10.247 3.223 1.151 4283520848
10.227 3.2179999 1.154 4283520336
10.216 3.2160001 1.158 4283784534
10.215 3.217 1.163 4284047960
10.192 3.2119999 1.165 4283916377
10.181 3.2090001 1.168 4284047965
10.17 3.207 1.1720001 4284903531
10.157 3.204 1.175 4285298546
10.195 3.217 1.184 4285365104
10.189 3.2160001 1.188 4284773224
10.228 3.2279999 1.197 4284246110
10.231 3.23 1.202 4284179037
10.295 3.25 1.214 4283980633
10.265 3.2409999 1.215 4284176730
10.308 3.2539999 1.224 4284570974
10.317 3.257 1.23 4284703329
10.31 3.2550001 1.233 4284572513
10.301 3.2509999 1.237 4284901729
10.302 3.2509999 1.2410001 4286152309
10.319 3.256 1.247 4286810241
10.32 3.2550001 1.251 4286284413
10.326 3.256 1.256 4285297521
10.328 3.256 1.26 4284574053
10.337 3.257 1.266 4283981661
10.334 3.2550001 1.2690001 4283915095
10.323 3.2490001 1.271 4283717719
10.359 3.2590001 1.279 4283717975
10.357 3.257 1.283 4283652180
10.353 3.2539999 1.286 4283717973
10.355 3.2520001 1.29 4284638817
10.379 3.257 1.2970001 4284705635
10.4 3.2620001 1.303 4284376672
10.403 3.26 1.307 4283784279
10.395 3.2550001 1.309 4284112475
10.382 3.2479999 1.311 4284572000
10.528 3.29 1.3329999 4284505695
10.48 3.2720001 1.33 4284111453
10.38 3.2379999 1.321 4284835681
10.33 3.2190001 1.317 4285231464
10.289 3.2019999 1.3150001 4285298285
10.289 3.1989999 1.318 4285363821
10.307 3.2 1.323 4284771688
10.345 3.2079999 1.331 4284178782
10.342 3.2030001 1.334 4284309341
10.335 3.197 1.335 4284440669
10.368 3.2030001 1.3430001 4284967271
10.411 3.211 1.351 4284507490
10.406 3.2049999 1.353 4283915099
10.342 3.181 1.347 4283980377
10.308 3.165 1.345 4283979607
10.377 3.1819999 1.357 4284308828
10.37 3.174 1.358 4284506209
10.352 3.1630001 1.358 4284374108
10.239 3.1240001 1.345 4284505440
10.215 3.1110001 1.344 4284768870
10.175 3.0929999 1.341 4285361266
10.174 3.0869999 1.3430001 4285625463
10.191 3.086 1.347 4285955451
10.199 3.082 1.35 4284573540
10.237 3.0880001 1.357 4284046942
10.286 3.096 1.365 4283651415
10.288 3.0899999 1.367 4284373854
10.318 3.092 1.373 4285626491
10.371 3.102 1.382 4284770661
10.284 3.069 1.372 4284639332
10.276 3.059 1.372 4284507491
10.258 3.0469999 1.3710001 4284704608
10.234 3.0320001 1.369 4284375133
10.203 3.016 1.3660001 4284242779
10.26 3.0250001 1.375 4283782486
10.197 2.9990001 1.368 4283716435
10.224 3 1.372 4284111190
10.246 2.9979999 1.376 4285034087
10.256 2.993 1.378 4285364082
10.279 2.9920001 1.382 4285100653
